-0.044577 -0.004413 0.022330 255 255 255
-0.065970 -0.008035 0.034301 255 255 255
-0.093704 0.003538 0.045495 255 255 255
-0.067012 0.009217 0.031556 255 255 255
-0.085490 -0.000681 0.042130 255 255 255
-0.047349 -0.000496 0.024000 255 255 255
-0.074352 -0.020607 0.038731 255 255 255
-0.034106 0.003009 0.055374 255 255 255
-0.044325 -0.002105 0.022261 255 255 255
-0.045260 -0.001785 0.023342 255 255 255
-0.058431 -0.000762 0.028601 255 255 255
-0.066628 0.001282 0.032549 255 255 255
-0.059025 -0.001114 0.029254 255 255 255
-0.025711 0.002445 0.054391 255 255 255
-0.046899 0.017140 0.022359 255 255 255
-0.044467 0.003214 0.021987 255 255 255
-0.094747 0.002428 0.045845 255 255 255
-0.055484 0.001990 0.027115 255 255 255
-0.080872 -0.005860 0.042614 255 255 255
-0.055987 -0.004745 0.027406 255 255 255
-0.044740 0.004230 0.021881 255 255 255
-0.070248 0.017486 0.033311 255 255 255
-0.113544 -0.022988 0.058016 255 255 255
-0.059482 -0.007152 0.072636 255 255 255
-0.119370 -0.013579 0.060952 255 255 255
-0.076217 -0.001045 0.038446 255 255 255
-0.077452 -0.001908 0.039117 255 255 255
-0.114154 -0.024570 0.057293 255 255 255
-0.067817 0.002343 0.033044 255 255 255
-0.057814 -0.004885 0.070719 255 255 255
-0.044610 0.005349 0.021897 255 255 255
-0.065830 0.001010 0.032735 255 255 255
-0.085491 -0.006540 0.087694 255 255 255
-0.046283 -0.015754 0.067742 255 255 255
-0.044669 0.003231 0.021881 255 255 255
-0.034613 0.004938 0.055721 255 255 255
-0.093234 0.004846 0.046680 255 255 255
-0.050378 -0.013422 0.068507 255 255 255
-0.063949 -0.013704 0.074697 255 255 255
-0.093576 0.005345 0.046653 255 255 255
-0.032251 0.007940 0.058728 255 255 255
-0.068298 -0.012576 0.033350 255 255 255
-0.032319 -0.001609 0.059131 255 255 255
-0.081426 0.005213 0.084691 255 255 255
-0.055445 0.002036 0.026960 255 255 255
-0.062460 -0.010071 0.075513 255 255 255
-0.055422 0.006819 0.026656 255 255 255
-0.066304 0.004033 0.031984 255 255 255
-0.055723 0.006508 0.026744 255 255 255
-0.055604 0.005757 0.026695 255 255 255
-0.046967 0.017097 0.022464 255 255 255
-0.079172 -0.020766 0.053658 255 255 255
-0.070557 -0.020455 0.047480 255 255 255
-0.055112 0.009197 0.026574 255 255 255
-0.045503 -0.002603 0.023031 255 255 255
-0.096623 -0.021864 0.048484 255 255 255
-0.033919 0.001902 0.058160 255 255 255
-0.044498 -0.001911 0.022230 255 255 255
-0.076449 -0.000466 0.038115 255 255 255
-0.161734 -0.018488 0.063168 255 255 255
-0.055443 0.008919 0.026553 255 255 255
-0.096223 -0.021761 0.048037 255 255 255
-0.055379 0.005225 0.026729 255 255 255
-0.031736 -0.004826 0.059429 255 255 255
-0.055277 0.007715 0.026539 255 255 255
-0.065685 0.005661 0.032039 255 255 255
-0.079022 0.018267 0.081700 255 255 255
-0.049201 -0.020730 0.025154 255 255 255
-0.054771 0.008086 0.026573 255 255 255
-0.054921 0.007472 0.026595 255 255 255
-0.055108 0.007296 0.026589 255 255 255
-0.045489 -0.007334 0.023252 255 255 255
-0.113559 -0.011476 0.055839 255 255 255
-0.032369 0.000032 0.059113 255 255 255
-0.052816 -0.020128 0.038742 255 255 255
-0.069253 -0.013987 0.077989 255 255 255
-0.052736 -0.019936 0.039223 255 255 255
-0.106161 -0.022058 0.066030 255 255 255
-0.053733 -0.020166 0.038971 255 255 255
-0.044712 -0.003471 0.022159 255 255 255
-0.102593 -0.020817 0.076756 255 255 255
-0.045188 -0.008986 0.022336 255 255 255
-0.044636 -0.000216 0.022579 255 255 255
-0.028260 0.003869 0.056548 255 255 255
-0.043724 -0.017742 0.053945 255 255 255
-0.062259 -0.013271 0.076947 255 255 255
-0.094671 -0.000620 0.046539 255 255 255
-0.094486 -0.001077 0.046343 255 255 255
-0.058218 -0.012099 0.027592 255 255 255
-0.093593 -0.005831 0.046372 255 255 255
-0.128992 -0.022299 0.099357 255 255 255
-0.066939 0.001586 0.033363 255 255 255
-0.042959 0.017183 0.020414 255 255 255
-0.033741 0.001401 0.057919 255 255 255
-0.044537 0.003087 0.022142 255 255 255
-0.093684 0.001489 0.046028 255 255 255
-0.094874 -0.003816 0.046510 255 255 255
-0.043022 0.017152 0.020538 255 255 255
-0.067231 -0.010894 0.032873 255 255 255
-0.108920 0.014225 0.057939 255 255 255
-0.055558 0.003372 0.027137 255 255 255
-0.066010 -0.003014 0.032222 255 255 255
-0.066223 -0.002441 0.032210 255 255 255
-0.063739 -0.019864 0.050473 255 255 255
-0.066129 0.000795 0.032253 255 255 255
-0.043676 -0.018774 0.056236 255 255 255
-0.092590 0.007635 0.045882 255 255 255
-0.085669 -0.000243 0.042308 255 255 255
-0.066211 0.001627 0.032044 255 255 255
-0.055701 -0.001863 0.027378 255 255 255
-0.062845 -0.006800 0.075170 255 255 255
-0.046865 0.016927 0.022532 255 255 255
-0.074904 -0.001659 0.037900 255 255 255
-0.056670 -0.008253 0.027540 255 255 255
-0.051339 0.017098 0.024545 255 255 255
-0.045441 -0.014784 0.065265 255 255 255
-0.029163 -0.002125 0.056852 255 255 255
-0.083758 0.005815 0.041620 255 255 255
-0.055139 -0.004193 0.027204 255 255 255
-0.068220 0.001624 0.033566 255 255 255
-0.095767 -0.020771 0.049343 255 255 255
-0.067093 -0.010868 0.034074 255 255 255
-0.044985 -0.014454 0.065698 255 255 255
-0.106463 -0.003346 0.052901 255 255 255
-0.058405 -0.000060 0.029073 255 255 255
-0.075241 0.000129 0.037588 255 255 255
-0.066044 0.000589 0.032825 255 255 255
-0.058442 0.000013 0.028864 255 255 255
-0.086273 0.001644 0.042491 255 255 255
-0.057059 -0.001838 0.028863 255 255 255
-0.076054 0.002879 0.036984 255 255 255
-0.067046 -0.007590 0.032993 255 255 255
-0.055530 0.002919 0.027110 255 255 255
-0.057696 0.003257 0.028341 255 255 255
-0.057429 -0.002811 0.028781 255 255 255
-0.066484 -0.013702 0.032797 255 255 255
-0.056841 -0.002542 0.028900 255 255 255
-0.056271 -0.003635 0.027334 255 255 255
-0.058365 -0.002860 0.028690 255 255 255
-0.056963 0.002746 0.028102 255 255 255
-0.166955 -0.028072 0.100109 255 255 255
-0.056704 0.000301 0.028020 255 255 255
-0.075025 -0.022005 0.038964 255 255 255
-0.045310 -0.002291 0.023195 255 255 255
-0.045685 -0.007759 0.023326 255 255 255
-0.112080 -0.022136 0.092535 255 255 255
-0.058683 0.003630 0.028616 255 255 255
-0.044523 -0.002899 0.022273 255 255 255
-0.110036 -0.021371 0.079323 255 255 255
-0.057174 0.002323 0.028100 255 255 255
-0.075440 -0.001368 0.037974 255 255 255
-0.044623 -0.002792 0.022242 255 255 255
-0.067468 -0.009746 0.032582 255 255 255
-0.093584 -0.017064 0.047083 255 255 255
-0.045217 -0.010134 0.023423 255 255 255
-0.044492 0.001569 0.022176 255 255 255
-0.074524 0.008183 0.037048 255 255 255
-0.057808 0.001354 0.028198 255 255 255
-0.044426 -0.006080 0.022320 255 255 255
-0.044553 -0.001341 0.022219 255 255 255
-0.152345 -0.016716 0.078333 255 255 255
-0.044592 0.006662 0.021769 255 255 255
-0.045800 -0.003295 0.023045 255 255 255
-0.044547 -0.005866 0.022297 255 255 255
-0.044719 0.007348 0.021788 255 255 255
-0.055359 0.003708 0.026641 255 255 255
-0.066617 -0.022222 0.034168 255 255 255
-0.044443 -0.006294 0.022353 255 255 255
-0.075566 0.009432 0.037256 255 255 255
-0.057184 -0.008242 0.028555 255 255 255
-0.057250 0.003997 0.027982 255 255 255
-0.098930 -0.022215 0.074249 255 255 255
-0.057151 0.004269 0.027906 255 255 255
-0.028764 0.001782 0.055378 255 255 255
-0.091311 0.012458 0.044372 255 255 255
-0.068702 -0.002222 0.033603 255 255 255
-0.028431 -0.003407 0.055784 255 255 255
-0.066140 -0.011771 0.034203 255 255 255
-0.074877 -0.008037 0.037395 255 255 255
-0.057331 0.003934 0.028143 255 255 255
-0.045721 -0.001773 0.023021 255 255 255
-0.045703 -0.001769 0.022898 255 255 255
-0.057272 -0.003041 0.029075 255 255 255
-0.044816 -0.004325 0.022136 255 255 255
-0.044387 -0.000345 0.022381 255 255 255
-0.117962 -0.017765 0.061162 255 255 255
-0.057243 0.005136 0.027963 255 255 255
-0.069884 -0.012901 0.077456 255 255 255
-0.032995 0.008038 0.059253 255 255 255
-0.070254 -0.019083 0.078435 255 255 255
-0.077813 -0.014217 0.038477 255 255 255
-0.051059 -0.017750 0.058082 255 255 255
-0.076734 -0.007813 0.039278 255 255 255
-0.077659 -0.007187 0.038083 255 255 255
-0.064117 -0.019696 0.050145 255 255 255
-0.044427 -0.000547 0.022561 255 255 255
-0.066448 0.002509 0.032422 255 255 255
-0.057210 -0.003114 0.028360 255 255 255
-0.058452 -0.021427 0.029352 255 255 255
-0.074190 -0.014965 0.089329 255 255 255
-0.067025 -0.007080 0.032997 255 255 255
-0.074106 -0.001151 0.036480 255 255 255
-0.057131 0.003532 0.028007 255 255 255
-0.063728 0.016547 0.030902 255 255 255
-0.113820 -0.024120 0.057711 255 255 255
-0.044596 -0.008031 0.022469 255 255 255
-0.057018 0.000347 0.030023 255 255 255
-0.067273 -0.004538 0.032190 255 255 255
-0.044309 -0.006563 0.022347 255 255 255
-0.044670 0.001878 0.021956 255 255 255
-0.091597 0.013886 0.046239 255 255 255
-0.044453 0.005250 0.021996 255 255 255
-0.045091 -0.002798 0.023208 255 255 255
-0.044815 -0.001073 0.022028 255 255 255
-0.043643 -0.018946 0.056970 255 255 255
-0.123030 0.017328 0.059984 255 255 255
-0.045081 0.004689 0.021755 255 255 255
-0.044877 0.006951 0.021684 255 255 255
-0.093542 0.007325 0.045663 255 255 255
-0.075743 0.001584 0.037014 255 255 255
-0.055999 0.000912 0.027150 255 255 255
-0.066426 0.001527 0.032441 255 255 255
-0.045451 -0.000618 0.023080 255 255 255
-0.120175 -0.021991 0.095111 255 255 255
-0.047222 -0.000649 0.023900 255 255 255
-0.083842 0.006322 0.041564 255 255 255
-0.045735 -0.012696 0.065383 255 255 255
-0.066788 -0.010324 0.032665 255 255 255
-0.093775 0.010436 0.046449 255 255 255
-0.054904 -0.002546 0.027076 255 255 255
-0.047037 0.016759 0.022509 255 255 255
-0.043508 -0.018495 0.056244 255 255 255
-0.119702 0.015281 0.055288 255 255 255
-0.056070 -0.006284 0.027854 255 255 255
-0.066323 -0.021250 0.034742 255 255 255
-0.064125 -0.020118 0.035218 255 255 255
-0.032272 0.003549 0.058683 255 255 255
-0.058129 -0.021715 0.029796 255 255 255
-0.034968 0.007745 0.058387 255 255 255
-0.069054 -0.004608 0.034110 255 255 255
-0.046893 0.016602 0.022617 255 255 255
-0.066391 -0.021330 0.035044 255 255 255
-0.056348 -0.007734 0.028453 255 255 255
-0.057102 0.001105 0.028295 255 255 255
-0.045667 0.003153 0.022685 255 255 255
-0.157652 0.013951 0.076272 255 255 255
-0.070664 -0.018670 0.055537 255 255 255
-0.056533 -0.009365 0.072638 255 255 255
-0.083762 0.006711 0.041597 255 255 255
-0.066107 -0.002354 0.032423 255 255 255
-0.065991 -0.003087 0.032459 255 255 255
-0.044730 -0.005305 0.022297 255 255 255
-0.029077 0.003458 0.055237 255 255 255
-0.033189 0.008867 0.057284 255 255 255
-0.075016 0.008854 0.037024 255 255 255
-0.092676 0.017734 0.088318 255 255 255
-0.057546 -0.007488 0.028613 255 255 255
-0.034354 -0.002467 0.059284 255 255 255
-0.045837 -0.004397 0.023057 255 255 255
-0.044421 -0.006869 0.022375 255 255 255
-0.093419 0.011871 0.044909 255 255 255
-0.068177 -0.002573 0.033459 255 255 255
-0.063973 -0.019313 0.056097 255 255 255
-0.092737 0.012072 0.044736 255 255 255
-0.051253 -0.010711 0.066703 255 255 255
-0.076181 -0.002717 0.036664 255 255 255
-0.044253 -0.017195 0.066336 255 255 255
-0.084569 -0.011979 0.043040 255 255 255
-0.147852 0.009550 0.070915 255 255 255
-0.069342 -0.020265 0.051532 255 255 255
-0.063978 -0.012886 0.076628 255 255 255
-0.055767 0.001725 0.027082 255 255 255
-0.078104 0.001433 0.083782 255 255 255
-0.094747 0.003995 0.045574 255 255 255
-0.034500 0.004264 0.055966 255 255 255
-0.028603 0.002813 0.054924 255 255 255
-0.029070 0.003225 0.055179 255 255 255
-0.082182 -0.021228 0.043109 255 255 255
-0.068632 -0.000525 0.033545 255 255 255
-0.054477 -0.001268 0.027034 255 255 255
-0.067594 -0.022270 0.033674 255 255 255
-0.045979 -0.004887 0.023060 255 255 255
-0.015231 -0.013603 0.049830 255 255 255
-0.080289 0.004721 0.083975 255 255 255
-0.058345 -0.021808 0.029542 255 255 255
-0.015399 -0.011747 0.049780 255 255 255
-0.076626 -0.008850 0.082748 255 255 255
-0.026965 -0.005677 0.055718 255 255 255
-0.033561 0.000031 0.058788 255 255 255
-0.031778 -0.002909 0.059163 255 255 255
-0.076286 -0.000814 0.037937 255 255 255
-0.031461 -0.004031 0.058037 255 255 255
-0.057229 -0.000293 0.028217 255 255 255
-0.054722 -0.002568 0.027205 255 255 255
-0.033274 -0.006715 0.018681 255 255 255
-0.055522 -0.003468 0.027439 255 255 255
-0.065611 0.003263 0.031573 255 255 255
-0.057852 -0.005039 0.028516 255 255 255
-0.055861 0.001149 0.026803 255 255 255
-0.066075 -0.020551 0.034658 255 255 255
-0.058296 -0.000358 0.029533 255 255 255
-0.071510 -0.021544 0.051292 255 255 255
-0.034596 0.003159 0.058389 255 255 255
-0.025776 -0.003861 0.055859 255 255 255
-0.074794 -0.001801 0.036987 255 255 255
-0.045495 -0.001607 0.023084 255 255 255
-0.029070 0.003102 0.055504 255 255 255
-0.084398 0.002746 0.041983 255 255 255
-0.074647 0.009629 0.036785 255 255 255
-0.058125 0.001639 0.028646 255 255 255
-0.074304 -0.000970 0.038476 255 255 255
-0.051854 -0.007500 0.068504 255 255 255
-0.151504 -0.014441 0.078983 255 255 255
-0.066198 0.000818 0.031703 255 255 255
-0.027547 -0.002276 0.054360 255 255 255
-0.035537 -0.002158 0.059532 255 255 255
-0.080186 0.016592 0.082161 255 255 255
-0.055696 0.010216 0.026371 255 255 255
-0.066515 0.001094 0.031770 255 255 255
-0.030641 -0.003561 0.056901 255 255 255
-0.074238 -0.021348 0.039768 255 255 255
-0.058086 -0.005120 0.029017 255 255 255
-0.065615 -0.003471 0.032255 255 255 255
-0.073804 -0.007156 0.037624 255 255 255
-0.032383 0.003418 0.055322 255 255 255
-0.056137 -0.000009 0.026824 255 255 255
-0.055757 -0.001852 0.026860 255 255 255
-0.050228 -0.011528 0.067952 255 255 255
-0.075677 0.003905 0.037188 255 255 255
-0.066508 0.006477 0.031845 255 255 255
-0.116588 -0.023266 0.083755 255 255 255
-0.066339 0.007782 0.032008 255 255 255
-0.069424 -0.004682 0.033687 255 255 255
-0.076540 0.005799 0.037496 255 255 255
-0.057694 -0.012612 0.027961 255 255 255
-0.059656 -0.001219 0.029079 255 255 255
-0.076272 0.004985 0.037550 255 255 255
-0.172772 -0.003411 0.099232 255 255 255
-0.104895 -0.003256 0.052710 255 255 255
-0.083757 -0.005589 0.085755 255 255 255
-0.054059 -0.020895 0.038571 255 255 255
-0.113668 -0.023542 0.057069 255 255 255
-0.110621 -0.024770 0.055379 255 255 255
-0.083655 -0.002384 0.042496 255 255 255
-0.035269 0.006093 0.058334 255 255 255
-0.059129 -0.020953 0.029765 255 255 255
-0.075445 -0.021805 0.040483 255 255 255
-0.059286 -0.020971 0.029518 255 255 255
-0.068358 -0.007736 0.033898 255 255 255
-0.077236 -0.010783 0.038523 255 255 255
-0.055107 0.000804 0.027369 255 255 255
-0.097875 0.017198 0.081357 255 255 255
-0.055949 -0.005979 0.027441 255 255 255
-0.169496 0.011681 0.086260 255 255 255
-0.030890 -0.001417 0.057630 255 255 255
-0.068299 -0.008684 0.032707 255 255 255
-0.066731 -0.007908 0.032652 255 255 255
-0.078092 -0.003572 0.038736 255 255 255
-0.068064 -0.013817 0.033200 255 255 255
-0.026087 0.002984 0.055015 255 255 255
-0.070526 0.003573 0.078366 255 255 255
-0.064536 -0.019689 0.051223 255 255 255
-0.034945 0.008182 0.058119 255 255 255
-0.088812 -0.017125 0.088830 255 255 255
-0.090022 -0.018709 0.090571 255 255 255
-0.057897 -0.020639 0.030198 255 255 255
-0.076375 0.021325 0.082127 255 255 255
-0.034466 0.006846 0.057789 255 255 255
-0.035019 0.008172 0.058493 255 255 255
-0.059108 -0.021177 0.029201 255 255 255
-0.093102 0.000856 0.046065 255 255 255
-0.033285 -0.003034 0.060265 255 255 255
-0.031583 -0.004312 0.058705 255 255 255
-0.055759 -0.019032 0.051132 255 255 255
-0.031764 0.003388 0.059576 255 255 255
-0.058510 -0.004329 0.028538 255 255 255
-0.056501 -0.003910 0.027305 255 255 255
-0.056866 -0.004106 0.027149 255 255 255
-0.033425 -0.003712 0.060142 255 255 255
-0.059041 -0.022004 0.029245 255 255 255
-0.074840 -0.003027 0.037462 255 255 255
-0.045150 -0.017092 0.065233 255 255 255
-0.067450 -0.002982 0.033800 255 255 255
-0.036238 0.010836 0.062146 255 255 255
-0.057216 -0.008660 0.027665 255 255 255
-0.057878 -0.012925 0.027857 255 255 255
-0.053169 -0.019918 0.039173 255 255 255
-0.058612 -0.006083 0.028606 255 255 255
-0.090522 0.015552 0.084526 255 255 255
-0.065287 0.003998 0.031844 255 255 255
-0.032895 -0.003808 0.060063 255 255 255
-0.060014 -0.007275 0.072456 255 255 255
-0.085985 -0.011196 0.093730 255 255 255
-0.067267 -0.003217 0.032118 255 255 255
-0.069964 -0.008964 0.034376 255 255 255
-0.059396 -0.002116 0.028740 255 255 255
-0.035608 -0.002438 0.060401 255 255 255
-0.076005 -0.006620 0.039212 255 255 255
-0.032889 -0.001705 0.058751 255 255 255
-0.031724 -0.000380 0.058368 255 255 255
-0.076963 -0.009906 0.038399 255 255 255
-0.075029 0.001050 0.037295 255 255 255
-0.032398 -0.001983 0.059453 255 255 255
-0.034283 0.001884 0.057617 255 255 255
-0.079257 0.005007 0.082721 255 255 255
-0.119913 -0.022211 0.074450 255 255 255
-0.059519 -0.000536 0.028659 255 255 255
-0.078393 -0.000702 0.038925 255 255 255
-0.069899 -0.003031 0.033956 255 255 255
-0.032925 0.009955 0.058879 255 255 255
-0.032629 0.008355 0.058641 255 255 255
-0.056836 -0.007120 0.072518 255 255 255
-0.068940 0.017533 0.033570 255 255 255
-0.066773 -0.006248 0.032587 255 255 255
-0.076990 0.007616 0.037269 255 255 255
-0.076626 0.002669 0.037475 255 255 255
-0.117846 0.017663 0.070382 255 255 255
-0.088980 -0.020933 0.069073 255 255 255
-0.034066 0.005197 0.055234 255 255 255
-0.080406 -0.010043 0.084893 255 255 255
-0.068766 -0.015892 0.033320 255 255 255
-0.034173 -0.000974 0.059637 255 255 255
-0.053537 -0.019912 0.061203 255 255 255
-0.115546 -0.016128 0.056352 255 255 255
-0.033138 -0.003391 0.059367 255 255 255
-0.098106 0.017616 0.080259 255 255 255
-0.058199 -0.001360 0.029830 255 255 255
-0.034243 0.001990 0.057178 255 255 255
-0.033049 0.000112 0.057353 255 255 255
-0.059368 -0.003567 0.028788 255 255 255
-0.076727 -0.003992 0.038710 255 255 255
-0.081124 -0.013517 0.085062 255 255 255
-0.025553 -0.003638 0.055658 255 255 255
-0.075843 0.006493 0.037452 255 255 255
-0.078176 0.006859 0.037072 255 255 255
-0.058122 -0.010535 0.027543 255 255 255
-0.089014 0.010456 0.042379 255 255 255
-0.091073 0.003497 0.045696 255 255 255
-0.076809 0.003004 0.037316 255 255 255
-0.029309 0.004773 0.059113 255 255 255
-0.093639 0.011240 0.047473 255 255 255
-0.062782 -0.019642 0.048945 255 255 255
-0.034351 0.000710 0.058124 255 255 255
-0.095746 -0.021612 0.083937 255 255 255
-0.162539 0.014201 0.072689 255 255 255
-0.076654 0.003478 0.037465 255 255 255
-0.045363 -0.020622 0.034062 255 255 255
-0.076780 0.000839 0.037942 255 255 255
-0.085846 -0.013692 0.042935 255 255 255
-0.077938 -0.006757 0.038343 255 255 255
-0.032887 0.007519 0.058358 255 255 255
-0.118022 0.015523 0.058102 255 255 255
-0.064269 -0.020781 0.050227 255 255 255
-0.052081 -0.018456 0.059842 255 255 255
-0.077044 -0.011300 0.038900 255 255 255
-0.056642 -0.019393 0.050919 255 255 255
-0.068704 -0.006400 0.032416 255 255 255
-0.094839 -0.020903 0.081746 255 255 255
-0.048529 -0.018607 0.067902 255 255 255
-0.070187 -0.020975 0.047985 255 255 255
-0.086063 -0.002275 0.043044 255 255 255
-0.053756 -0.020963 0.039312 255 255 255
-0.048097 -0.017907 0.067027 255 255 255
-0.080878 -0.013334 0.038360 255 255 255
-0.066610 -0.014841 0.076609 255 255 255
-0.066100 -0.008883 0.032344 255 255 255
-0.092821 -0.021234 0.060315 255 255 255
-0.076863 -0.005843 0.037589 255 255 255
-0.078752 -0.011427 0.038594 255 255 255
-0.078135 -0.007265 0.038746 255 255 255
-0.068803 -0.007120 0.034098 255 255 255
-0.077505 -0.010397 0.038090 255 255 255
-0.080381 -0.012413 0.038869 255 255 255
-0.078993 -0.012689 0.038852 255 255 255
-0.075693 -0.002220 0.037933 255 255 255
-0.078986 -0.007287 0.039403 255 255 255
-0.075624 -0.003305 0.037367 255 255 255
-0.055964 -0.004946 0.027300 255 255 255
-0.078035 -0.007694 0.038164 255 255 255
-0.079312 -0.014120 0.038552 255 255 255
-0.078236 -0.010911 0.039483 255 255 255
-0.081439 -0.005456 0.039844 255 255 255
-0.077504 -0.009474 0.038110 255 255 255
-0.076853 -0.009204 0.038393 255 255 255
-0.077071 -0.008492 0.037815 255 255 255
-0.069760 -0.003371 0.034098 255 255 255
-0.115842 -0.018050 0.102682 255 255 255
-0.065588 0.016250 0.031156 255 255 255
-0.087821 -0.020240 0.048473 255 255 255
-0.106965 -0.015070 0.053468 255 255 255
-0.087879 -0.016633 0.043740 255 255 255
-0.073302 -0.000746 0.036083 255 255 255
-0.079023 0.017552 0.082078 255 255 255
-0.098659 -0.021709 0.073271 255 255 255
-0.078580 -0.011004 0.040020 255 255 255
-0.079454 -0.012050 0.039656 255 255 255
-0.078994 -0.009772 0.037890 255 255 255
-0.084446 -0.015874 0.043263 255 255 255
-0.078843 -0.012007 0.040180 255 255 255
-0.072837 0.016050 0.067017 255 255 255
-0.069876 -0.014912 0.033031 255 255 255
-0.068948 -0.015353 0.033458 255 255 255
-0.076533 -0.002600 0.039009 255 255 255
-0.101254 -0.020258 0.065488 255 255 255
-0.076155 -0.014433 0.038859 255 255 255
-0.079533 -0.014613 0.038150 255 255 255
-0.044255 -0.019800 0.034680 255 255 255
-0.092035 0.013598 0.046506 255 255 255
-0.067864 -0.005879 0.033802 255 255 255
-0.026296 -0.017939 0.047416 255 255 255
-0.080478 0.016665 0.082289 255 255 255
-0.067274 -0.002277 0.032098 255 255 255
-0.063096 -0.005455 0.075532 255 255 255
-0.030593 0.002556 0.057543 255 255 255
-0.078370 -0.013839 0.083979 255 255 255
-0.047780 -0.017820 0.065384 255 255 255
-0.104833 -0.002109 0.052342 255 255 255
-0.108299 -0.023263 0.056568 255 255 255
-0.076045 -0.008281 0.039259 255 255 255
-0.093889 0.011466 0.045704 255 255 255
-0.122405 0.016770 0.055657 255 255 255
-0.076632 -0.020404 0.073941 255 255 255
-0.031898 -0.004696 0.059889 255 255 255
-0.114409 0.014203 0.055638 255 255 255
-0.152234 -0.019992 0.077967 255 255 255
-0.116040 -0.021366 0.078407 255 255 255
-0.105018 -0.022504 0.077632 255 255 255
-0.032778 0.007752 0.057829 255 255 255
-0.082180 0.004759 0.084953 255 255 255
-0.031905 0.008608 0.057709 255 255 255
-0.134359 0.011200 0.063910 255 255 255
-0.115225 -0.013954 0.056811 255 255 255
-0.033725 -0.004484 0.060769 255 255 255
-0.110669 0.016762 0.061009 255 255 255
-0.027638 -0.005524 0.055960 255 255 255
-0.032708 0.007646 0.057983 255 255 255
-0.033571 0.004097 0.058016 255 255 255
-0.123170 -0.022470 0.097981 255 255 255
-0.033513 -0.003800 0.059736 255 255 255
-0.068795 -0.005580 0.033493 255 255 255
-0.065142 0.006967 0.031931 255 255 255
-0.065474 -0.005407 0.032256 255 255 255
-0.091204 -0.022879 0.046619 255 255 255
-0.031838 0.008518 0.059271 255 255 255
-0.063640 -0.005994 0.074886 255 255 255
-0.081214 0.015647 0.082908 255 255 255
-0.059799 -0.006998 0.073067 255 255 255
-0.069846 -0.012460 0.077857 255 255 255
-0.030996 0.003170 0.058423 255 255 255
-0.064802 -0.010777 0.032897 255 255 255
-0.031957 0.003745 0.059570 255 255 255
-0.033546 -0.003963 0.060101 255 255 255
-0.079195 -0.000553 0.083521 255 255 255
-0.112345 -0.020047 0.056847 255 255 255
-0.049931 -0.020117 0.047832 255 255 255
-0.081387 -0.004166 0.042527 255 255 255
-0.074965 0.000472 0.037266 255 255 255
-0.083543 -0.004146 0.041755 255 255 255
-0.088921 -0.018188 0.091276 255 255 255
-0.029051 0.003289 0.055689 255 255 255
-0.057756 -0.000148 0.029852 255 255 255
-0.032087 -0.001372 0.059350 255 255 255
-0.077602 0.003999 0.036913 255 255 255
-0.075920 0.000066 0.038846 255 255 255
-0.093056 -0.001108 0.046251 255 255 255
-0.056421 -0.006923 0.070930 255 255 255
-0.057305 -0.007668 0.072834 255 255 255
-0.117261 -0.013352 0.103829 255 255 255
-0.076303 -0.005472 0.039184 255 255 255
-0.078500 0.006645 0.037803 255 255 255
-0.098815 -0.020704 0.093561 255 255 255
-0.112232 -0.021418 0.090684 255 255 255
-0.138837 -0.022489 0.105552 255 255 255
-0.033214 -0.004066 0.060730 255 255 255
-0.090255 -0.014483 0.091122 255 255 255
-0.057383 -0.001093 0.029105 255 255 255
-0.068507 -0.020171 0.053327 255 255 255
-0.076139 -0.011916 0.037596 255 255 255
-0.032641 -0.001637 0.059534 255 255 255
-0.074771 -0.011120 0.037702 255 255 255
-0.058770 0.003619 0.028531 255 255 255
-0.032295 -0.005292 0.060426 255 255 255
-0.088116 0.004268 0.042926 255 255 255
-0.158593 -0.018059 0.069559 255 255 255
-0.033188 -0.000214 0.059901 255 255 255
-0.106752 -0.021178 0.077937 255 255 255
-0.145055 0.001077 0.115733 255 255 255
-0.097773 0.000756 0.046804 255 255 255
-0.151645 0.010845 0.074673 255 255 255
-0.032877 0.001982 0.060092 255 255 255
-0.064129 -0.001687 0.032496 255 255 255
-0.047652 -0.014799 0.070574 255 255 255
-0.036289 0.010494 0.060751 255 255 255
-0.053537 -0.006459 0.069376 255 255 255
-0.095920 0.012543 0.047816 255 255 255
-0.034818 0.003372 0.056904 255 255 255
-0.082050 -0.001172 0.043567 255 255 255
-0.032322 -0.000229 0.058464 255 255 255
-0.031029 0.003710 0.058682 255 255 255
-0.031805 -0.001809 0.058810 255 255 255
-0.095381 -0.005002 0.049068 255 255 255
-0.074444 -0.004315 0.037000 255 255 255
-0.031729 -0.004579 0.058281 255 255 255
-0.076956 -0.005807 0.038870 255 255 255
-0.075339 -0.000911 0.037206 255 255 255
-0.047087 -0.013569 0.068788 255 255 255
-0.107726 -0.021730 0.078255 255 255 255
-0.053478 -0.003911 0.068914 255 255 255
-0.057728 -0.011296 0.072959 255 255 255
-0.078901 0.016028 0.081495 255 255 255
-0.078258 -0.021771 0.051713 255 255 255
-0.149914 -0.024183 0.078801 255 255 255
-0.030794 -0.001353 0.056579 255 255 255
-0.032362 -0.001920 0.058939 255 255 255
-0.085381 -0.001396 0.042974 255 255 255
-0.031990 -0.000816 0.058780 255 255 255
-0.062240 -0.009377 0.076630 255 255 255
-0.032070 -0.003092 0.059423 255 255 255
-0.025700 -0.005207 0.055940 255 255 255
-0.051833 -0.013952 0.070269 255 255 255
-0.065436 -0.004597 0.076861 255 255 255
-0.113707 -0.023689 0.057240 255 255 255
-0.073065 -0.020054 0.056246 255 255 255
-0.069340 0.016411 0.073366 255 255 255
-0.073892 0.018808 0.080172 255 255 255
-0.052013 -0.003753 0.068836 255 255 255
-0.108665 -0.003490 0.052553 255 255 255
-0.045922 -0.013558 0.066542 255 255 255
-0.054440 -0.009907 0.070723 255 255 255
-0.076146 -0.020242 0.051868 255 255 255
-0.146985 -0.012679 0.075973 255 255 255
-0.069805 -0.012529 0.077420 255 255 255
-0.031835 0.008435 0.057636 255 255 255
-0.027970 0.003037 0.053723 255 255 255
-0.033461 0.000995 0.056382 255 255 255
-0.034363 -0.000254 0.058301 255 255 255
-0.079244 -0.013645 0.084835 255 255 255
-0.116911 0.014180 0.055734 255 255 255
-0.091478 0.000934 0.045717 255 255 255
-0.114217 0.013804 0.055512 255 255 255
-0.075826 -0.008747 0.082637 255 255 255
-0.032055 -0.003259 0.058553 255 255 255
-0.066364 0.017048 0.031096 255 255 255
-0.065241 0.003749 0.032313 255 255 255
-0.152091 -0.018043 0.073495 255 255 255
-0.081280 -0.014057 0.085681 255 255 255
-0.050567 -0.011215 0.066463 255 255 255
-0.055720 -0.019880 0.029574 255 255 255
-0.081709 -0.021753 0.042389 255 255 255
-0.055505 -0.018803 0.050575 255 255 255
-0.065796 -0.014215 0.033134 255 255 255
-0.090105 -0.020701 0.069205 255 255 255
-0.065767 -0.009791 0.032596 255 255 255
-0.065571 0.005573 0.031941 255 255 255
-0.066772 0.001970 0.032955 255 255 255
-0.051619 -0.018643 0.059643 255 255 255
-0.129139 0.015451 0.063995 255 255 255
-0.072648 -0.019669 0.060155 255 255 255
-0.074920 -0.012640 0.038568 255 255 255
-0.064388 -0.020318 0.034488 255 255 255
-0.161617 -0.015191 0.082983 255 255 255
-0.045330 -0.014596 0.065274 255 255 255
-0.051200 -0.012673 0.068167 255 255 255
-0.068912 -0.016212 0.076384 255 255 255
-0.098206 -0.021162 0.074055 255 255 255
-0.096342 0.014283 0.048403 255 255 255
-0.063713 -0.010210 0.075530 255 255 255
-0.034261 -0.001958 0.059393 255 255 255
-0.033661 0.001780 0.055861 255 255 255
-0.033609 -0.001046 0.057594 255 255 255
-0.031578 0.002873 0.057810 255 255 255
-0.074899 -0.013060 0.037961 255 255 255
-0.064624 -0.020436 0.034090 255 255 255
-0.091271 0.012490 0.045235 255 255 255
-0.033877 -0.000549 0.057442 255 255 255
-0.068559 -0.020349 0.047878 255 255 255
-0.065396 -0.020954 0.035227 255 255 255
-0.108812 -0.023962 0.079558 255 255 255
-0.081524 -0.021195 0.042514 255 255 255
-0.050738 -0.013388 0.068780 255 255 255
-0.064303 -0.020621 0.034011 255 255 255
-0.073100 -0.021365 0.038048 255 255 255
-0.075166 -0.012430 0.038484 255 255 255
-0.056408 -0.020195 0.030783 255 255 255
-0.077821 -0.021080 0.051532 255 255 255
-0.065822 0.005928 0.031843 255 255 255
-0.065089 0.008065 0.031630 255 255 255
-0.055994 -0.019409 0.051788 255 255 255
-0.045215 -0.014333 0.065304 255 255 255
-0.049254 -0.012697 0.066967 255 255 255
-0.069309 -0.020757 0.047015 255 255 255
-0.080315 -0.020738 0.043014 255 255 255
-0.052420 -0.019846 0.039162 255 255 255
-0.050632 -0.018586 0.038688 255 255 255
-0.080409 -0.021086 0.043140 255 255 255
-0.078342 0.004910 0.083144 255 255 255
-0.058151 -0.018666 0.042605 255 255 255
-0.052479 -0.019724 0.039267 255 255 255
-0.073431 -0.020519 0.039030 255 255 255
-0.115092 -0.010565 0.055741 255 255 255
-0.077418 -0.020361 0.051582 255 255 255
-0.083304 -0.007084 0.086853 255 255 255
-0.168973 -0.022630 0.122727 255 255 255
-0.153156 -0.018916 0.077404 255 255 255
-0.052510 -0.009464 0.068754 255 255 255
-0.035313 -0.002447 0.058873 255 255 255
-0.120464 -0.022819 0.074444 255 255 255
-0.076151 0.017125 0.068604 255 255 255
-0.065082 -0.011850 0.032908 255 255 255
-0.121044 0.014965 0.055270 255 255 255
-0.075222 -0.002367 0.037415 255 255 255
-0.135472 0.010265 0.063976 255 255 255
-0.073088 0.018992 0.077820 255 255 255
-0.056246 -0.020014 0.029546 255 255 255
-0.080436 0.004335 0.083504 255 255 255
-0.031492 -0.000224 0.057565 255 255 255
-0.052008 -0.003431 0.068036 255 255 255
-0.034775 0.007443 0.056866 255 255 255
-0.167932 0.015491 0.127686 255 255 255
-0.062009 -0.019510 0.048386 255 255 255
-0.030741 0.002768 0.057117 255 255 255
-0.055042 -0.008432 0.070859 255 255 255
-0.055412 -0.008525 0.070863 255 255 255
-0.031445 -0.004082 0.058230 255 255 255
-0.062394 -0.019788 0.050177 255 255 255
-0.062585 -0.019668 0.050208 255 255 255
-0.031582 -0.004337 0.058056 255 255 255
-0.084472 -0.012340 0.042604 255 255 255
-0.075797 -0.001195 0.037543 255 255 255
-0.066577 -0.008518 0.033743 255 255 255
-0.075000 -0.001872 0.037999 255 255 255
-0.083965 -0.014854 0.043331 255 255 255
-0.116201 -0.015500 0.103491 255 255 255
-0.083873 -0.006251 0.086271 255 255 255
-0.030897 -0.001768 0.056789 255 255 255
-0.152901 -0.015920 0.078392 255 255 255
-0.068036 0.016411 0.033313 255 255 255
-0.051686 -0.009898 0.069242 255 255 255
-0.064802 -0.011252 0.033965 255 255 255
-0.089568 -0.020468 0.069321 255 255 255
-0.083269 -0.000717 0.042180 255 255 255
-0.054708 -0.006734 0.070476 255 255 255
-0.076847 -0.014018 0.038220 255 255 255
-0.097466 -0.022113 0.052251 255 255 255
-0.068096 -0.020343 0.046911 255 255 255
-0.064650 -0.020803 0.034747 255 255 255
-0.085611 -0.015349 0.043049 255 255 255
-0.063478 -0.019836 0.055253 255 255 255
-0.055363 -0.018451 0.050743 255 255 255
-0.118932 -0.021207 0.093681 255 255 255
-0.106985 0.012465 0.052496 255 255 255
-0.073177 -0.020356 0.060531 255 255 255
-0.093195 0.003909 0.045990 255 255 255
-0.091437 0.002343 0.045637 255 255 255
-0.078041 0.005093 0.082969 255 255 255
-0.094121 0.000053 0.046371 255 255 255
-0.092549 0.004098 0.045827 255 255 255
-0.091780 0.003487 0.045631 255 255 255
-0.091882 0.003134 0.045646 255 255 255
-0.091538 0.001310 0.045751 255 255 255
-0.031199 0.001841 0.056511 255 255 255
-0.079386 -0.015947 0.038231 255 255 255
-0.026904 -0.004826 0.053982 255 255 255
-0.032048 -0.006187 0.058751 255 255 255
-0.060236 -0.005976 0.072678 255 255 255
-0.091698 0.008643 0.045415 255 255 255
-0.062507 -0.019159 0.049283 255 255 255
-0.092149 -0.006032 0.046135 255 255 255
-0.094289 -0.004120 0.046534 255 255 255
-0.091767 -0.006664 0.046145 255 255 255
-0.067245 0.003241 0.075683 255 255 255
-0.094258 -0.004584 0.046518 255 255 255
-0.087038 -0.009131 0.089332 255 255 255
-0.031513 -0.001032 0.057383 255 255 255
-0.098691 -0.010856 0.049991 255 255 255
-0.065720 -0.010435 0.032853 255 255 255
-0.072692 -0.021026 0.038412 255 255 255
-0.077332 -0.011021 0.039124 255 255 255
-0.074951 -0.000307 0.037333 255 255 255
-0.074574 0.000864 0.037259 255 255 255
-0.074500 0.001030 0.037224 255 255 255
-0.065007 -0.013167 0.033064 255 255 255
-0.066859 0.002674 0.033454 255 255 255
-0.064872 -0.020545 0.033878 255 255 255
-0.084856 -0.000288 0.042441 255 255 255
-0.065210 -0.010652 0.033921 255 255 255
-0.084048 0.001233 0.041981 255 255 255
-0.085185 -0.002412 0.043344 255 255 255
-0.073743 0.001897 0.037012 255 255 255
-0.077534 0.003847 0.037404 255 255 255
-0.064677 0.000569 0.032451 255 255 255
-0.064474 -0.002194 0.032459 255 255 255
-0.047854 -0.017874 0.066255 255 255 255
-0.093428 -0.013198 0.046957 255 255 255
-0.067337 0.000713 0.033661 255 255 255
-0.085336 -0.001747 0.043482 255 255 255
-0.077384 0.004932 0.037251 255 255 255
-0.081571 -0.020419 0.064201 255 255 255
-0.074690 -0.004698 0.037477 255 255 255
-0.065135 -0.011421 0.032873 255 255 255
-0.077593 0.004762 0.037305 255 255 255
-0.067294 -0.006516 0.033911 255 255 255
-0.127660 -0.022221 0.099837 255 255 255
-0.093614 -0.012145 0.046942 255 255 255
-0.068308 0.001794 0.033511 255 255 255
-0.068198 0.001962 0.033513 255 255 255
-0.077473 0.005265 0.036769 255 255 255
-0.084469 -0.002970 0.042649 255 255 255
-0.073219 -0.004334 0.037388 255 255 255
-0.076117 0.001411 0.038537 255 255 255
-0.068296 0.002288 0.033333 255 255 255
-0.114095 -0.007159 0.056440 255 255 255
-0.076531 -0.020474 0.051802 255 255 255
-0.074231 -0.002994 0.037487 255 255 255
-0.091963 -0.012162 0.046687 255 255 255
-0.087226 -0.008875 0.088898 255 255 255
-0.076319 0.001399 0.038222 255 255 255
-0.083655 0.000799 0.042247 255 255 255
-0.053970 -0.020639 0.039499 255 255 255
-0.066820 -0.006722 0.033699 255 255 255
-0.074000 -0.006320 0.037559 255 255 255
-0.072696 -0.001264 0.036783 255 255 255
-0.065343 0.002916 0.032307 255 255 255
-0.051738 -0.008683 0.068070 255 255 255
-0.092457 0.008760 0.045107 255 255 255
-0.064631 0.001335 0.032282 255 255 255
-0.080391 -0.020609 0.043932 255 255 255
-0.074403 -0.000721 0.038574 255 255 255
-0.082513 -0.001548 0.041950 255 255 255
-0.074154 -0.010281 0.038113 255 255 255
-0.078850 0.005876 0.038047 255 255 255
-0.076458 -0.004558 0.038624 255 255 255
-0.064998 0.002544 0.032089 255 255 255
-0.080399 -0.001535 0.041170 255 255 255
-0.112436 -0.021426 0.057398 255 255 255
-0.094270 -0.018542 0.047066 255 255 255
-0.065414 0.004452 0.032015 255 255 255
-0.093097 0.008314 0.045293 255 255 255
-0.074520 -0.005514 0.037193 255 255 255
-0.075995 0.000176 0.038601 255 255 255
-0.063660 -0.019096 0.055790 255 255 255
-0.075699 -0.019696 0.051477 255 255 255
-0.048084 -0.017840 0.065777 255 255 255
-0.076084 -0.019922 0.052040 255 255 255
-0.078102 0.003447 0.037048 255 255 255
-0.077914 -0.021487 0.052404 255 255 255
-0.072134 -0.020239 0.039315 255 255 255
-0.057472 -0.000765 0.029282 255 255 255
-0.074647 -0.005441 0.037517 255 255 255
-0.091474 -0.016841 0.093705 255 255 255
-0.072176 -0.019917 0.038485 255 255 255
-0.052322 -0.019682 0.038429 255 255 255
-0.084121 -0.004177 0.042671 255 255 255
-0.065624 0.000273 0.032072 255 255 255
-0.084251 0.000353 0.041871 255 255 255
-0.064751 0.002197 0.032204 255 255 255
-0.098498 -0.021804 0.074098 255 255 255
-0.084179 0.000363 0.042147 255 255 255
-0.066986 0.002677 0.033773 255 255 255
-0.077705 0.004301 0.036940 255 255 255
-0.077699 0.004509 0.036923 255 255 255
-0.083462 0.001624 0.042604 255 255 255
-0.068415 0.017055 0.033778 255 255 255
-0.076075 0.000475 0.038055 255 255 255
-0.111356 -0.018384 0.101103 255 255 255
-0.112251 -0.020854 0.090331 255 255 255
-0.127174 -0.022949 0.099608 255 255 255
-0.075336 -0.012625 0.037612 255 255 255
-0.033642 0.002187 0.057010 255 255 255
-0.093469 0.010637 0.045766 255 255 255
-0.074974 -0.001412 0.038548 255 255 255
-0.067513 -0.020380 0.045866 255 255 255
-0.077516 -0.015097 0.038111 255 255 255
-0.066959 -0.019376 0.054590 255 255 255
-0.072007 -0.019807 0.056925 255 255 255
-0.065395 0.002704 0.031929 255 255 255
-0.064830 -0.001766 0.032732 255 255 255
-0.074092 -0.003639 0.036915 255 255 255
-0.068831 -0.020397 0.047740 255 255 255
-0.064970 -0.006209 0.032386 255 255 255
-0.092223 -0.007038 0.045840 255 255 255
-0.045120 -0.017205 0.065896 255 255 255
-0.077999 -0.021501 0.051111 255 255 255
-0.092553 -0.010830 0.046709 255 255 255
-0.031772 0.008255 0.057590 255 255 255
-0.092675 -0.014306 0.046735 255 255 255
-0.052407 -0.008301 0.068555 255 255 255
-0.124446 0.016423 0.058949 255 255 255
-0.124395 0.015142 0.062437 255 255 255
-0.091093 0.003404 0.045775 255 255 255
-0.091427 0.001745 0.045575 255 255 255
-0.126194 0.014202 0.064095 255 255 255
-0.088559 -0.017800 0.089855 255 255 255
-0.074363 -0.010655 0.037737 255 255 255
-0.093762 -0.016525 0.047045 255 255 255
-0.077045 -0.013502 0.082488 255 255 255
-0.093112 -0.015218 0.046813 255 255 255
-0.074457 0.000329 0.037229 255 255 255
-0.064694 -0.002950 0.032421 255 255 255
-0.065063 -0.008571 0.032810 255 255 255
-0.064839 -0.006236 0.032619 255 255 255
-0.091838 0.007118 0.045811 255 255 255
-0.073727 -0.005888 0.037422 255 255 255
-0.032147 -0.000407 0.058137 255 255 255
-0.073487 -0.005511 0.037447 255 255 255
-0.064793 -0.005359 0.032536 255 255 255
-0.064573 -0.005341 0.032639 255 255 255
-0.084437 -0.005764 0.042348 255 255 255
-0.082893 -0.007894 0.042210 255 255 255
-0.091947 -0.009496 0.045915 255 255 255
-0.072731 0.016358 0.035513 255 255 255
-0.078220 0.006562 0.037374 255 255 255
-0.055233 -0.006755 0.070973 255 255 255
-0.073432 -0.007927 0.037148 255 255 255
-0.120660 -0.016499 0.059465 255 255 255
-0.075030 -0.002453 0.038029 255 255 255
-0.073487 -0.006389 0.037190 255 255 255
-0.084771 -0.012790 0.042903 255 255 255
-0.081919 -0.021080 0.064899 255 255 255
-0.065131 -0.007471 0.032687 255 255 255
-0.075995 -0.002601 0.038473 255 255 255
-0.077702 0.004253 0.037408 255 255 255
-0.065042 -0.008021 0.032580 255 255 255
-0.081699 -0.021292 0.042916 255 255 255
-0.065145 0.003968 0.032316 255 255 255
-0.083511 -0.005591 0.042403 255 255 255
-0.083458 -0.005362 0.042424 255 255 255
-0.082059 -0.021865 0.043207 255 255 255
-0.065379 -0.007283 0.032754 255 255 255
-0.084129 -0.013395 0.043068 255 255 255
-0.073849 -0.003967 0.037365 255 255 255
-0.105261 -0.003513 0.052738 255 255 255
-0.068429 0.002454 0.033467 255 255 255
-0.084752 -0.013455 0.042930 255 255 255
-0.056450 -0.020242 0.030651 255 255 255
-0.078521 0.006278 0.037499 255 255 255
-0.064283 -0.020105 0.056264 255 255 255
-0.116015 -0.014790 0.057002 255 255 255
-0.084596 -0.014060 0.042968 255 255 255
-0.066416 -0.009994 0.034174 255 255 255
-0.078620 0.006341 0.037023 255 255 255
-0.064521 -0.020554 0.034268 255 255 255
-0.076454 -0.006537 0.038957 255 255 255
-0.106268 -0.002073 0.052921 255 255 255
-0.076681 -0.006558 0.038774 255 255 255
-0.065468 -0.006739 0.032489 255 255 255
-0.067422 -0.002295 0.033834 255 255 255
-0.083417 -0.014308 0.043171 255 255 255
-0.067679 -0.002508 0.033786 255 255 255
-0.055661 -0.018763 0.051628 255 255 255
-0.066325 -0.005959 0.032330 255 255 255
-0.056371 -0.019433 0.051973 255 255 255
-0.083975 -0.002265 0.042142 255 255 255
-0.076174 -0.005609 0.038429 255 255 255
-0.109213 -0.023564 0.055881 255 255 255
-0.083909 -0.009601 0.042472 255 255 255
-0.066355 -0.007334 0.034234 255 255 255
-0.067457 -0.004062 0.033939 255 255 255
-0.075762 -0.006849 0.039093 255 255 255
-0.065472 -0.010272 0.034213 255 255 255
-0.076176 -0.003360 0.038281 255 255 255
-0.083813 -0.009806 0.042460 255 255 255
-0.073882 -0.009497 0.038107 255 255 255
-0.067317 -0.003686 0.033858 255 255 255
-0.076102 0.001939 0.038090 255 255 255
-0.085007 -0.013983 0.042687 255 255 255
-0.065344 -0.010286 0.034290 255 255 255
-0.069706 -0.021096 0.046977 255 255 255
-0.067641 -0.003347 0.033793 255 255 255
-0.085317 -0.014924 0.042850 255 255 255
-0.066305 -0.006840 0.034263 255 255 255
-0.081907 -0.001225 0.041636 255 255 255
-0.119221 -0.023131 0.075849 255 255 255
-0.065388 -0.008504 0.032561 255 255 255
-0.065954 -0.009144 0.034213 255 255 255
-0.118755 0.013300 0.061944 255 255 255
-0.083669 0.001345 0.042275 255 255 255
-0.074092 0.000315 0.036741 255 255 255
-0.065154 0.003033 0.032519 255 255 255
-0.081494 0.016173 0.083355 255 255 255
-0.064764 -0.006381 0.032564 255 255 255
-0.075771 0.000702 0.036960 255 255 255
-0.118913 0.009031 0.055615 255 255 255
-0.083538 -0.004824 0.042346 255 255 255
-0.067039 0.002065 0.033735 255 255 255
-0.034414 0.005583 0.056827 255 255 255
-0.066622 -0.006785 0.034153 255 255 255
-0.113204 -0.016810 0.056910 255 255 255
-0.077854 0.005693 0.036885 255 255 255
-0.045108 -0.013838 0.064711 255 255 255
-0.063666 -0.014039 0.074999 255 255 255
-0.065342 -0.006375 0.032327 255 255 255
-0.071263 -0.018988 0.059580 255 255 255
-0.065254 -0.012305 0.033100 255 255 255
-0.065383 0.003251 0.031966 255 255 255
-0.065058 0.006189 0.032028 255 255 255
-0.064988 0.006187 0.032173 255 255 255
-0.093292 0.007603 0.048328 255 255 255
-0.065340 0.003913 0.032047 255 255 255
-0.074011 0.001116 0.036677 255 255 255
-0.065599 0.005069 0.031887 255 255 255
-0.057993 -0.001287 0.028757 255 255 255
-0.065031 -0.011281 0.032726 255 255 255
-0.066777 -0.007137 0.034281 255 255 255
-0.093184 -0.000980 0.046246 255 255 255
-0.056991 -0.000044 0.030134 255 255 255
-0.066040 0.008532 0.031753 255 255 255
-0.078658 0.000789 0.039238 255 255 255
-0.065374 0.001925 0.032073 255 255 255
-0.090148 0.010830 0.045575 255 255 255
-0.074928 -0.000771 0.038702 255 255 255
-0.064720 0.004429 0.031702 255 255 255
-0.094473 -0.020720 0.047096 255 255 255
-0.160220 -0.000895 0.065043 255 255 255
-0.091113 -0.015846 0.091871 255 255 255
-0.155863 0.012238 0.072416 255 255 255
-0.073468 -0.021025 0.038265 255 255 255
-0.091870 0.009074 0.045418 255 255 255
-0.064636 0.000692 0.032256 255 255 255
-0.053040 -0.007448 0.068952 255 255 255
-0.089985 -0.009590 0.045021 255 255 255
-0.065430 -0.009512 0.032839 255 255 255
-0.068513 0.016884 0.033113 255 255 255
-0.074791 -0.011983 0.038775 255 255 255
-0.099073 -0.021471 0.094965 255 255 255
-0.064948 0.015692 0.031152 255 255 255
-0.065712 -0.010874 0.033816 255 255 255
-0.078038 0.002834 0.038584 255 255 255
-0.076254 -0.006941 0.038845 255 255 255
-0.091791 -0.021637 0.091855 255 255 255
-0.080047 0.002280 0.084770 255 255 255
-0.064695 -0.019966 0.055648 255 255 255
-0.114552 -0.016882 0.056765 255 255 255
-0.113436 -0.016104 0.056858 255 255 255
-0.092092 0.012920 0.045944 255 255 255
-0.064677 0.004525 0.032205 255 255 255
-0.064546 0.016601 0.031272 255 255 255
-0.063177 0.016072 0.031388 255 255 255
-0.083504 0.001132 0.041537 255 255 255
-0.083457 -0.010164 0.042705 255 255 255
-0.078861 0.007199 0.037047 255 255 255
-0.077910 0.005222 0.037020 255 255 255
-0.084243 -0.003477 0.042575 255 255 255
-0.083367 -0.006934 0.042708 255 255 255
-0.078463 0.007439 0.037078 255 255 255
-0.075091 -0.006998 0.037357 255 255 255
-0.065403 -0.004290 0.032411 255 255 255
-0.114102 -0.017646 0.103667 255 255 255
-0.095076 -0.022263 0.049302 255 255 255
-0.082088 -0.011047 0.042947 255 255 255
-0.065955 0.008225 0.031691 255 255 255
-0.065853 0.009175 0.031833 255 255 255
-0.062598 0.015472 0.031427 255 255 255
-0.057233 0.000003 0.030035 255 255 255
-0.065229 0.007831 0.032099 255 255 255
-0.074493 -0.011352 0.038390 255 255 255
-0.082632 -0.000607 0.041351 255 255 255
-0.057413 -0.001081 0.029377 255 255 255
-0.086396 -0.003516 0.043632 255 255 255
-0.075797 -0.012513 0.037598 255 255 255
-0.051954 -0.019366 0.038049 255 255 255
-0.064486 0.012175 0.031718 255 255 255
-0.064845 -0.009685 0.034280 255 255 255
-0.071641 0.017399 0.074502 255 255 255
-0.064571 -0.011126 0.034181 255 255 255
-0.079143 -0.013730 0.085349 255 255 255
-0.055235 0.006698 0.027187 255 255 255
-0.057943 -0.007121 0.071181 255 255 255
-0.076011 -0.011580 0.037526 255 255 255
-0.065251 0.007181 0.031939 255 255 255
-0.066009 -0.006864 0.032379 255 255 255
-0.091371 -0.020937 0.046790 255 255 255
-0.075656 -0.013588 0.037638 255 255 255
-0.066829 -0.003112 0.034001 255 255 255
-0.077063 -0.014523 0.037832 255 255 255
-0.100617 -0.022674 0.074423 255 255 255
-0.067027 0.003164 0.033648 255 255 255
-0.066884 0.003058 0.033435 255 255 255
-0.110498 -0.024628 0.055085 255 255 255
-0.171241 0.012811 0.128008 255 255 255
-0.057769 -0.000794 0.029503 255 255 255
-0.075082 -0.010762 0.037439 255 255 255
-0.072300 -0.021443 0.038240 255 255 255
-0.057146 -0.003267 0.029027 255 255 255
-0.034851 0.008087 0.056841 255 255 255
-0.115783 -0.003373 0.056456 255 255 255
-0.055103 -0.008012 0.070811 255 255 255
-0.066116 -0.013630 0.075930 255 255 255
-0.088433 -0.012862 0.042543 255 255 255
-0.085656 -0.012360 0.042215 255 255 255
-0.091944 -0.013648 0.046480 255 255 255
-0.094638 0.011767 0.046074 255 255 255
-0.067070 -0.007530 0.033870 255 255 255
-0.111961 -0.022035 0.057176 255 255 255
-0.091301 -0.016077 0.092110 255 255 255
-0.104590 -0.003263 0.053435 255 255 255
-0.075213 -0.001613 0.037638 255 255 255
-0.078165 0.014263 0.039067 255 255 255
-0.066363 -0.008368 0.033922 255 255 255
-0.154612 0.011869 0.075203 255 255 255
-0.045211 -0.013651 0.065913 255 255 255
-0.064951 -0.020315 0.055359 255 255 255
-0.091002 -0.022428 0.046537 255 255 255
-0.065910 -0.007937 0.032669 255 255 255
-0.074975 -0.009734 0.037500 255 255 255
-0.057547 -0.005427 0.028969 255 255 255
-0.058689 -0.000935 0.029527 255 255 255
-0.064991 0.006979 0.032202 255 255 255
-0.085558 -0.001063 0.043735 255 255 255
-0.083488 -0.012950 0.043190 255 255 255
-0.078304 0.006002 0.037132 255 255 255
-0.114314 -0.009215 0.056044 255 255 255
-0.092592 0.004502 0.045316 255 255 255
-0.068014 -0.003782 0.033732 255 255 255
-0.066633 -0.010154 0.032485 255 255 255
-0.163722 -0.000256 0.062824 255 255 255
-0.065055 0.001596 0.031833 255 255 255
-0.093411 0.018559 0.089599 255 255 255
-0.077727 -0.021396 0.051331 255 255 255
-0.064871 -0.012828 0.032984 255 255 255
-0.057223 -0.003848 0.028916 255 255 255
-0.057500 -0.003723 0.028836 255 255 255
-0.057206 -0.003746 0.028917 255 255 255
-0.056051 -0.001160 0.028606 255 255 255
-0.078655 0.005362 0.038102 255 255 255
-0.058633 0.003960 0.028557 255 255 255
-0.058539 0.003717 0.028556 255 255 255
-0.065729 -0.008107 0.032371 255 255 255
-0.058239 -0.000436 0.028848 255 255 255
-0.055973 -0.008700 0.029171 255 255 255
-0.064696 0.003632 0.031770 255 255 255
-0.055764 0.000546 0.027399 255 255 255
-0.075472 -0.006481 0.037282 255 255 255
-0.056367 -0.008307 0.029138 255 255 255
-0.064990 0.009442 0.031596 255 255 255
-0.079480 -0.014248 0.086261 255 255 255
-0.064663 0.009230 0.031576 255 255 255
-0.034114 0.006280 0.055062 255 255 255
-0.058050 -0.000650 0.028995 255 255 255
-0.069046 0.003069 0.033250 255 255 255
-0.033636 0.002119 0.055804 255 255 255
-0.094989 0.013344 0.047863 255 255 255
-0.052794 -0.008708 0.069440 255 255 255
-0.091698 -0.009790 0.046325 255 255 255
-0.031470 0.001790 0.057665 255 255 255
-0.067854 -0.019915 0.053025 255 255 255
-0.074193 -0.009675 0.037578 255 255 255
-0.073895 -0.009822 0.037598 255 255 255
-0.054275 -0.006785 0.070341 255 255 255
-0.081719 0.017423 0.083467 255 255 255
-0.074599 -0.010919 0.037765 255 255 255
